153

-2.4067346898393547 -0.6542592260837985 0.24242088451354082
-2.002574916293476 1.965804389538678 0.30764799405794074
1.2595147082855478 -3.0235763574784746 0.24362330053270345
2.7200365381353073 -1.0499608810425656 0.24919626381413246
1.8051843686543068 2.908899986497067 0.19607475739089208
0.018257527085638436 -2.3909336408623965 0.18884006468176426
3.053753118529177 -1.9521387419016225 0.2892420395600418
-0.9770992050881642 -2.3081913143772184 0.2733531389748427
-0.9621690911959737 1.991015880755862 0.16632936540208387
3.496264111643482 -0.41297747047500977 0.24806895832440745
-0.9523583279849372 3.438343535397034 0.18039046565067868
-0.15235166150827872 2.42679935205558 0.18659306867140552
1.4530537507114385 2.496678994364169 0.2245255636957621
0.49730180080847397 -3.4659720752880814 0.20095199088147958
-2.457734989826145 -1.3292898752155669 0.27621884451135725
-0.001950141394611471 -2.938838596023489 0.3018572301722203
-2.0734409180622624 0.9641543324736359 0.1563854720960983
-3.15658900011348 1.435730775605438 0.1524336282451537
2.357062416834684 -0.3727728387005529 0.1631215081457639
2.0833913874905505 1.5821149043162421 0.3122957528117945
2.6205966237207434 -1.6947606435933382 0.15022985250015172
-2.4418367263491074 -2.720115134630743 0.2818862487192332
2.557265672295438 2.564541132576146 0.30108771632578624
-0.3475693675573659 3.183258846601924 0.24096032371953613
-1.4855774414502454 -1.7354681598663646 0.2236173987902688
0.9957750812402919 -2.2894297072609655 0.2596748008733971
0.7659813580295776 3.536702144825833 0.23333977530282846
2.2550331103658943 0.4942435408770436 0.20165593436746884
-3.19597973764915 -0.3677274733389311 0.2041110625603912
0.5450569624956758 2.1209940154412514 0.15745711778815882
-0.4647646537701018 -2.236466928365311 0.22038041019994092
-2.023760034535467 -1.6249919236755623 0.2099005675706106
-2.4416520685809546 -2.0350955889215596 0.2799615825302525
-1.7093220944102745 -2.8918611818494435 0.26601008839265533
-1.8697269596693022 1.2650495823599517 0.1917921962693688
0.5317217825350458 -2.4965944181467687 0.23328455699275152
-1.6178465864450535 3.235859894964558 0.16274385346258888
3.041817568622805 2.2390058536664457 0.18647495318557106
-2.870506538975989 0.18599579171882752 0.2205653808426584
2.840038247775862 0.6993768855464984 0.16375538553867758
3.292668963393199 1.2932056017979656 0.15744860970089533
3.3801361335315034 1.7628395001469475 0.15499420199270836
-0.5174014502791495 -3.697668364742035 0.198763994076389
0.20984616494829744 3.129480263883094 0.31531382815626213
-0.6505021994921627 2.73565558207458 0.2310410586235342
1.5294204314045814 -2.0047942676210146 0.1518100197315626
-1.8116644005558555 -2.2792623113983517 0.23757055484106065
2.708199255430472 0.13711132553534888 0.22988735651217362
-3.671613862566198 -0.49741651362164063 0.2541314124408256
3.5635527610183644 0.728703199183788 0.24420270803206406
1.9261993273682032 -2.726108555156748 0.21337213640945654
-2.2429576229457115 2.8763626155672357 0.18416131448165662
-3.072412206229375 -1.9783039523883028 0.28746742605512776
-2.4876869894651303 0.38586139517105966 0.16849385455870533
3.4205323121959657 -1.3482914937295982 0.16401261244691007
-1.2905746598746974 -3.461280131087177 0.21246169639165863
-1.40340032321288 2.8038575438082605 0.1814058710885278
2.567736837316514 1.8145760485689406 0.1700380680602222
-3.2723687935072707 0.9630485171512726 0.20686732413385883
1.1594887961675227 1.935195153085437 0.16482911974176886
2.3259025579707426 -2.520741595502477 0.22194203668964466
-2.514067164836111 0.8636621458120741 0.17991748388770673
-1.3324637072173227 2.095282191066782 0.17793884367013327
1.80976220461039 2.0923895798886782 0.1925479978408975
0.23217892370167892 2.245827808230713 0.17880584532770946
1.4865604028031223 -2.3410290400669957 0.1636238773215625
-1.0048317495668968 2.4392159809878935 0.15811836721922143
1.5458365092574118 3.337006266830616 0.1682125962078925
0.8181708638731777 2.922532640968268 0.16030135893498645
1.8928712087419415 -1.8964756687152988 0.22109015946881327
2.1422456495951234 -1.256045870469876 0.31234813972263337
-0.9055818164492582 -2.873294691776283 0.17105667760559595
2.837049776830967 -0.5865259024303713 0.16201673488334348
-2.2364367480129843 2.499458886443393 0.17969639965837442
-3.545037618977349 0.38050496410132784 0.31685426918904924
2.526224868255861 1.1465269969999152 0.2667178951601749
-3.034360678468352 -0.9998575824425897 0.27853872469449703
3.7464447000437993 0.046204069568005934 0.17266675804177992
3.204665069347704 0.29654533739757305 0.253303387102889
3.0107817133776846 -0.22013416291017052 0.1930063325537735
-0.16780702899987254 -3.5037186664870212 0.17666239809864448
-2.7170072716772102 1.252756876709876 0.18666513657389533
2.3534552427252207 -0.7260656414805169 0.16643716734450759
-2.7321048419186074 2.1890715980300524 0.2625022120904644
2.6261929444410557 -2.176850547570595 0.1696260321138899
-0.5855310926744934 3.564845762734235 0.2051457811295617
1.9202471138005404 1.0630135457415895 0.16943421583273546
1.9179362170215475 -3.1884633547860126 0.2110608021057141
-3.185642729684921 1.8087251036962346 0.17882080650277357
2.959401885475354 1.0798988922309238 0.15428302785738182
-0.8769716373267888 -3.5015239210176006 0.1813615523573696
3.2136414520380896 -0.906575599136306 0.23109700262263563
-2.4994979389849377 -0.19562965631021534 0.15514574405825102
2.8774495411688417 1.44010066935419 0.17303146431734995
1.0491026194004247 2.4115003948830447 0.15020406747076837
-3.5801340873953578 -1.0075177954935004 0.24952811018524879
-2.2119585615049155 0.6385360523539809 0.19486835391214635
-0.5571354790814782 -3.165580132186575 0.1763517470846138
-3.505012581682327 1.2737955228761093 0.17707241905744264
1.2140201297463342 2.8835037937223396 0.16635914432131832
-2.541559678805765 1.575134725250357 0.1723741118598099
-0.6477628090084462 2.3106724662265288 0.1507342248390735
1.5584656698354182 -1.616946796345835 0.20347421833971113
-0.5526977491729568 -2.695932886762475 0.20826288248335945
-2.56653336760243 2.649323704060876 0.16381725526724164
-1.2303707847742302 -2.701743375178041 0.19459817097043464
-3.6879846636607656 0.9027056529077644 0.18636856481523797
0.6089649684573653 2.5381007812471843 0.17470400742845807
-1.702901970825235 2.4754002226653773 0.24325946319992162
-1.9681135891480537 -1.1066344350574866 0.20427138496465352
0.9550235338432582 -3.5197019928482938 0.2532164629599286
-3.0358045848854474 -1.4669954305915534 0.15673059180753005
-1.6016484156991293 1.5775997279762315 0.20606393804005335
1.989918570920472 2.4965876539964684 0.16468245246187221
3.6733596367597396 -0.9190192109645645 0.19923901791950002
2.2688004381009996 -2.9738478013831307 0.18436442228488664
2.2952507114313585 -1.9814852968952632 0.18089569320045698
0.11133188414589945 -3.7386556982301764 0.18685921585349757
-0.043509399427968276 3.6707142467575986 0.22849485115497795
3.0578086904005124 -1.382775434980374 0.16003762941939223
-1.782264737744402 -3.358043028371074 0.16796962618215508
0.6293504615713754 -2.9507663352271436 0.18307824724346608
-2.9194762458584593 -2.417484307236805 0.15524299037111886
2.9591424291325747 1.8399352060442578 0.15101072639381416
1.5230310462381462 1.7543221014361174 0.17580940168170214
-1.119392539007337 3.062120963101864 0.1613079059052346
-2.0181739018945732 3.229689315320221 0.1839634027423148
2.084598204008567 3.1676949568978667 0.15909898216473387
1.2277247799970592 3.509112837748547 0.17713958634453947
2.2887267681762893 2.1050002679193778 0.2009590058441964
-2.267057407801178 1.2930161436141585 0.1682318679493002
-1.463807175502092 3.5250998442065162 0.16258138908410363
1.4169011811097159 -3.473213346722699 0.15782521451283343
-2.951545786242246 0.7046558277452402 0.15334164891233754
-3.455726008274638 -1.5119376789644088 0.1506178974750078
1.1278704060501283 -1.8813501467379448 0.16888681805130942
-0.1813866501073349 2.7984268229541502 0.17552013539288033
2.198216040813236 -0.06220192807464198 0.1688129145693455
1.5341278357441315 -2.6787904023340445 0.16300204293502357
-1.8127472768638766 2.8870548800218723 0.18033649427274157
0.2258094508344577 2.591201570109181 0.15821176494297015
2.7292715934128005 -2.6167188715509644 0.1791315630052202
-2.0994897983891496 -3.154225667013545 0.17473152782175239
-2.8290661921724904 -0.3472048890923176 0.1578876090033713
0.9198910236244835 -2.6934330801397426 0.15107288241141054
1.9646336019159394 -2.3016043520559357 0.15263501240977978
-2.2180921579888473 0.1274444792196885 0.19653837563385276
-3.8447641004869597 -0.0524145087239658 0.15310522568391186
0.2995921402047719 -2.164184657788968 0.1558739768858186
2.2057998513463017 2.8622714256960125 0.150737194874821
-0.7996327868112827 3.1101113627094 0.15819648303395575
-3.168076196666994 2.1645399741364937 0.15267907276292791
0.3786304536032903 3.7334794256264896 0.19192504163559276
